# .PCD v0.7 - Point Cloud Data file format
VERSION 0.7
FIELDS x y z
SIZE 4 4 4
TYPE F F F
COUNT 1 1 1
WIDTH 96
HEIGHT 1
VIEWPOINT 0 0 0 1 0 0 0
POINTS 96
DATA ascii
25.76829 0.14999862 5.4528405e-06
17.48489 0.01110734 6.2920685e-06
14.394135 -0.71185386 8.3464247e-06
12.31746 -0.81844908 8.6952268e-06
10.594524 -1.2744864 9.9422823e-06
9.3743343 -1.5388408 1.0647556e-05
8.278635 -1.6150078 1.0841479e-05
7.3872066 -1.8385209 1.1411827e-05
6.6937742 -1.9416045 1.1649995e-05
5.9081922 -2.1333511 1.2123248e-05
5.3531528 -2.2364845 1.2349177e-05
4.8483143 -2.3763478 1.2668022e-05
4.3353772 -2.4503925 1.2809812e-05
3.8909001 -2.4987967 1.2879007e-05
3.4539754 -2.6657186 1.3260158e-05
3.084023 -2.7322991 1.3371287e-05
2.6933045 -2.7780538 1.3425605e-05
2.3519702 -2.8172286 1.3459577e-05
2.0504978 -2.9277744 1.3680572e-05
1.6392176 -3.0367913 1.3897176e-05
4.2871966 -18.789318 5.5595796e-05
2.7129459 -18.877741 5.5768782e-05
2.3446176 -18.995552 5.6221957e-05
0.63552862 -12.979885 3.9977716e-05
-0.041733578 -7.4925981 2.5250285e-05
-0.45774552 -4.9090662 1.8245777e-05
-0.6324662 -3.4427147 1.4234775e-05
-0.7915349 -2.4785662 1.1553434e-05
-0.86441243 -1.8029393 9.6504355e-06
-0.95816869 -1.2890191 8.1696253e-06
-1.0050266 -0.88299274 6.9833504e-06
-1.0234114 -0.60448581 6.1405317e-06
-1.306749 -0.24906594 5.2536211e-06
-1.3417169 -0.026777495 4.5749157e-06
-1.3891053 0.13741747 4.0477998e-06
-1.4171662 0.32289004 3.4673164e-06
-1.4261901 0.44401544 3.0603994e-06
-1.5140133 0.52025855 2.7581577e-06
-1.397799 0.70456159 2.2066108e-06
-1.5297194 0.73456138 2.0179687e-06
-1.5631042 0.80411553 1.7424611e-06
-1.5181408 0.90605146 1.3963972e-06
-1.5494145 0.96089089 1.1600994e-06
-1.5391152 1.072884 8.8982534e-07
-1.6303846 1.1234405 6.7021e-07
-1.5954301 1.1995726 3.9713845e-07
-1.6528139 1.2396367 2.0972787e-07
-1.6166946 1.2969041 -1.341546e-08
-1.6877738 1.3367835 -2.0121121e-07
-1.7770275 1.411478 -4.825435e-07
-13.251804 3.4579105 -7.023702e-06
-13.497715 4.3039141 -9.3221752e-06
-13.698579 5.1906843 -1.1723428e-05
-13.673483 6.4680681 -1.4485587e-05
-13.815257 7.7546668 -1.7873868e-05
-6.7048254 4.7843308 -9.8320797e-06
-6.0057225 4.8399925 -9.9976878e-06
-5.4090037 4.8875375 -1.0152924e-05
-4.9145379 4.9908261 -1.0464831e-05
-4.393703 5.0923719 -1.0780148e-05
-4.0006514 5.1501684 -1.0984771e-05
-3.6330106 5.2002568 -1.1174287e-05
-3.2499552 5.2837377 -1.1458655e-05
-2.880929 5.356379 -1.1719547e-05
-2.3674057 5.4128118 -1.1936201e-05
-2.0154343 5.4362168 -1.2076991e-05
-1.7563199 5.5583367 -1.2478669e-05
-1.4003348 5.5274301 -1.2485912e-05
-1.0182323 5.5655832 -1.2684113e-05
-0.68672025 5.627769 -1.294727e-05
-0.37263405 5.7111716 -1.3270045e-05
-0.019934796 5.7909303 -1.3592206e-05
0.34451935 5.8218727 -1.379177e-05
0.66566843 5.8211403 -1.390761e-05
1.1228316 5.9808602 -1.4376074e-05
1.5104913 6.0359893 -1.4625278e-05
1.9659108 6.1157856 -1.494645e-05
2.449954 6.1003838 -1.5019087e-05
2.9064698 6.2448978 -1.551569e-05
3.6179581 6.3194861 -1.5848962e-05
4.2906256 6.4340544 -1.6287939e-05
4.9831557 6.5712037 -1.6791148e-05
5.8428946 6.6146927 -1.7063045e-05
6.8041353 6.7481446 -1.7585879e-05
8.0659904 6.8989697 -1.8185608e-05
9.4420319 7.1951375 -1.8796618e-05
11.307827 7.5033708 -1.9757872e-05
17.951494 10.299888 -2.7527325e-05
18.25013 8.705658 -2.3350785e-05
18.522839 7.3884683 -1.9907011e-05
18.693359 6.0752869 -1.646877e-05
18.910521 4.9774218 -1.3602837e-05
19.092489 3.7134969 -1.029416e-05
25.171883 3.3137827 -9.474059e-06
25.468969 1.2838966 -4.1239264e-06
25.608864 -0.10435331 2.7691087e-07
